-0.05891859 -0.11756794 0.07446915
-0.04955649 -0.11846659 0.07516819
-0.04882133 -0.11640707 0.06255168
-0.04233807 -0.11550447 0.08157545
-0.03048563 -0.11708327 0.07666558
-0.05902666 -0.11128054 0.07455343
-0.05238748 -0.11138943 0.08129722
-0.02190041 -0.11426199 0.08228135
-0.05983907 -0.11949116 -0.07397628
-0.05020446 -0.11536793 -0.00857347
-0.05127740 -0.11417494 0.00562793
-0.04911363 -0.11707105 -0.07483226
-0.03829545 -0.11811674 -0.07560527
-0.04926050 -0.11596711 -0.06022739
-0.04130179 -0.11143803 0.01016134
-0.05342305 -0.10645048 0.06213152
-0.04128814 -0.10616580 0.08078557
-0.03145921 -0.10731676 0.07739270
-0.04023600 -0.11323535 -0.05926645
-0.02935857 -0.11459386 -0.06471610
-0.01922512 -0.11512845 -0.05970234
-0.05337775 -0.10723785 0.00745261
-0.05477649 -0.10220473 0.07522100
-0.02058274 -0.10479253 0.08131868
-0.05951631 -0.10915085 -0.07429683
-0.05261874 -0.10497819 -0.00643104
-0.04663283 -0.10048506 0.06488401
-0.04876936 -0.10663864 -0.07516944
-0.05324113 -0.10531540 -0.06117445
-0.03840649 -0.10686334 -0.06580055
-0.03173637 -0.10719244 -0.06248361
-0.04687232 -0.10156371 0.00180089
-0.04687422 -0.10096809 0.01056004
0.05076677 -0.10192618 0.11588633
0.06258547 -0.10260878 0.12030035
-0.02002412 -0.10438866 -0.05896783
-0.03749144 -0.09894064 0.00252360
-0.03588206 -0.09471887 0.06869775
0.03967685 -0.09774650 0.11506498
0.04390198 -0.09749696 0.12402773
0.05339193 -0.09813681 0.12590322
0.07800573 -0.10006881 0.12662476
-0.03124714 -0.10053696 -0.06776530
-0.05572248 -0.09484628 -0.00811780
-0.04603416 -0.09557875 -0.00779891
-0.05475372 -0.09385649 0.00864810
0.01130271 -0.09229429 0.11403030
0.01990932 -0.09258635 0.11995906
0.02911693 -0.09318770 0.12175387
0.06563395 -0.09549531 0.13009003
0.09524983 -0.09791260 0.12825891
-0.18914622 -0.08097052 0.00077915
-0.18512797 -0.08075079 0.00927830
-0.17635477 -0.08119556 0.01275206
-0.16560233 -0.08190415 0.01434290
-0.15466166 -0.08262505 0.01596284
-0.14600867 -0.08328221 0.01582462
-0.13507223 -0.08423854 0.01359886
-0.12384301 -0.08522223 0.01128429
-0.04901081 -0.09156962 -0.00074553
-0.04595673 -0.09115376 0.00977421
-0.03531134 -0.09197159 0.00945175
-0.04917914 -0.08643624 0.08279598
0.05737275 -0.09145819 0.13118440
-0.20792329 -0.07671303 0.00004447
-0.20396966 -0.07650185 0.00845498
-0.19588745 -0.07685622 0.01234043
-0.18499333 -0.07733395 0.01757664
-0.12410575 -0.08158757 0.02003145
-0.11264378 -0.08255112 0.01773721
-0.10679972 -0.08304285 0.01655966
-0.09491372 -0.08404243 0.01417404
-0.08271575 -0.08506917 0.01171029
-0.08438367 -0.08410499 0.02599376
-0.07642686 -0.08459219 0.02747697
-0.05288726 -0.08724347 0.01138109
-0.03566808 -0.08559079 0.06042069
0.00977576 -0.08610439 0.10730559
0.01521158 -0.08557120 0.12298056
0.02471805 -0.08616585 0.12454024
0.03435624 -0.08676867 0.12612239
-0.11041987 -0.07060819 0.22265008
0.04598820 -0.08735540 0.13041544
0.07326049 -0.08915602 0.13328633
0.08666378 -0.09012868 0.13321227
0.09471208 -0.09075412 0.13246697
-0.22478741 -0.07252767 0.00212407
-0.22218627 -0.07239389 0.00765902
-0.19754910 -0.07350006 0.01832968
-0.17515486 -0.07472911 0.02409530
-0.16397047 -0.07543982 0.02527010
-0.15639538 -0.07592117 0.02606600
-0.14372414 -0.07679485 0.02619201
-0.13414878 -0.07750782 0.02535921
-0.10412049 -0.07975332 0.02257842
-0.09606224 -0.07977103 0.03212231
-0.08524215 -0.08035193 0.03513545
-0.07627594 -0.08094072 0.03574276
-0.06585050 -0.08169410 0.03523868
-0.05455244 -0.08254070 0.03416175
-0.04195970 -0.08352792 0.03219414
-0.08791465 -0.07235476 0.17256811
-0.07790768 -0.07304102 0.17273316
0.06651622 -0.08531568 0.13341171
-0.23913354 -0.06874145 0.00182796
-0.23416507 -0.06869530 0.00874966
-0.21265513 -0.06962543 0.01802480
-0.12451375 -0.07492372 0.02880377
-0.11453068 -0.07563920 0.02791172
-0.03177321 -0.08069189 0.03660339
-0.01978028 -0.08155306 0.03550142
-0.05919629 -0.07634954 0.08258051
-0.04996556 -0.07692175 0.08339196
-0.03862977 -0.07771404 0.08274764
-0.10003483 -0.06597950 0.22252887
0.05622459 -0.08136661 0.13187331
0.07297152 -0.08239872 0.13345566
-0.25301081 -0.06506727 0.00143433
-0.24802786 -0.06503312 0.00818056
-0.22727376 -0.06586667 0.01765043
-0.20629454 -0.06690051 0.02357161
-0.19660568 -0.06741269 0.02564359
-0.18676734 -0.06793277 0.02774745
-0.13642758 -0.07095163 0.03168160
-0.10650665 -0.07279293 0.03312361
-0.09371132 -0.07333808 0.03836536
-0.05702215 -0.07558206 0.04039782
-0.04651809 -0.07626909 0.04012853
-0.03598821 -0.07629739 0.05246675
-0.00711274 -0.07888913 0.03830349
0.03005689 -0.08140323 0.03576654
0.04336637 -0.08231691 0.03460139
0.05781460 -0.08333647 0.03280765
0.07403105 -0.08452388 0.02997184
-0.01807702 -0.07419096 0.11458719
-0.00760698 -0.07483431 0.11511028
-0.07861221 -0.06724289 0.17319679
0.01844531 -0.07640097 0.11706418
0.02932525 -0.07685924 0.12162191
0.03773540 -0.07727269 0.12401468
-0.11525017 -0.06231133 0.22253639
0.08677119 -0.07993557 0.13315028
0.09401017 -0.08041406 0.13286871
-0.26653379 -0.06148780 0.00105917
-0.26153317 -0.06146524 0.00762510
-0.24104196 -0.06226413 0.01675707
-0.17496735 -0.06554396 0.03217077
-0.16746467 -0.06596834 0.03288484
-0.15602678 -0.06661531 0.03397357
-0.14356804 -0.06736174 0.03432763
-0.08669281 -0.07053862 0.04054248
-0.07348806 -0.07129113 0.04168779
-0.07135045 -0.07089306 0.05223978
-0.07428730 -0.07038787 0.05872112
-0.06213033 -0.07081793 0.06501436
-0.05142266 -0.07149569 0.06459594
-0.03970069 -0.07126425 0.08354747
0.02212918 -0.07694521 0.04589158
-0.03450865 -0.07002740 0.11455989
-0.06734079 -0.06509963 0.17266271
0.06495601 -0.07532920 0.13049364
-0.27970985 -0.05800024 0.00069422
-0.27242482 -0.05805511 0.00845921
-0.24903983 -0.05897871 0.01778734
-0.21610790 -0.06051690 0.02596688
-0.18671936 -0.06195924 0.03181291
-0.12298888 -0.06550889 0.03568739
-0.11369717 -0.06606389 0.03547049
-0.10438836 -0.06661399 0.03537649
-0.09457564 -0.06700965 0.03912169
-0.06419116 -0.06864372 0.04218507
-0.05798173 -0.06865865 0.04946792
-0.07018268 -0.06670092 0.07539773
-0.07630241 -0.06573679 0.08803159
-0.08204418 -0.06481956 0.10014904
-0.07091898 -0.06533132 0.10307664
-0.05912340 -0.06607999 0.10188085
-0.05230635 -0.06653751 0.10067111
-0.03753197 -0.06755149 0.09758198
-0.02903926 -0.06815726 0.09532851
-0.02048004 -0.06876589 0.09309650
-0.01041299 -0.06951082 0.08986431
-0.02482230 -0.06744183 0.11541504
-0.09296906 -0.06070875 0.17256823
-0.10653764 -0.05747887 0.22337148
-0.09013838 -0.05846601 0.22282994
-0.29255158 -0.05460115 0.00033849
-0.28530037 -0.05466026 0.00791329
-0.25931835 -0.05567243 0.01753932
-0.23899752 -0.05657186 0.02270853
-0.23008704 -0.05696620 0.02497631
-0.13334852 -0.06182119 0.03704059
-0.05394411 -0.06603081 0.04202819
-0.04382122 -0.06659247 0.04211694
-0.04574239 -0.06603588 0.05194837
-0.05795026 -0.06417792 0.07767922
-0.06383371 -0.06328455 0.09003478
-0.07500917 -0.06158059 0.11365789
-0.07736391 -0.06103128 0.12279955
-0.08084929 -0.06038762 0.13262340
-0.08547592 -0.05965019 0.14310330
-0.08999097 -0.05893056 0.15333039
-0.09439838 -0.05822809 0.16331360
-0.10290533 -0.05687220 0.18258271
-0.10903001 -0.05589602 0.19645569
-0.11299771 -0.05526363 0.20544282
-0.11687261 -0.05464574 0.21422634
-0.12252307 -0.05374455 0.22703806
-0.12618756 -0.05316009 0.23534703
-0.12980360 -0.05258569 0.24349540
-0.13513362 -0.05174283 0.25542238
-0.13863617 -0.05119223 0.26318854
-0.14375257 -0.05038795 0.27453268
-0.14871061 -0.04960855 0.28552586
-0.15193164 -0.04910221 0.29266769
-0.15663755 -0.04836213 0.30310890
-0.16158211 -0.04761396 0.31343502
-0.14968890 -0.04808736 0.31762081
-0.30280262 -0.05135511 0.00120437
-0.29566625 -0.05140761 0.00872469
-0.27485767 -0.05221005 0.01571250
-0.20539510 -0.05524470 0.03084934
-0.19544840 -0.05569494 0.03265578
-0.17478144 -0.05664477 0.03607935
-0.16725510 -0.05701469 0.03677362
-0.08545059 -0.06124611 0.03947085
-0.07702523 -0.06164745 0.04054165
-0.06301212 -0.06236359 0.04120368
-0.03299618 -0.06393390 0.04178595
-0.03105390 -0.06356149 0.05272967
-0.03710973 -0.06268027 0.06559753
-0.04299450 -0.06182363 0.07810921
-0.04919750 -0.06094926 0.09063977
-0.05871785 -0.05963742 0.10917783
-0.06140107 -0.05908421 0.11862385
-0.06582451 -0.05823229 0.13281417
-0.07078153 -0.05750474 0.14349061
-0.07559198 -0.05679714 0.15388706
-0.08029479 -0.05610599 0.16403711
-0.08487409 -0.05543230 0.17393607
-0.08938122 -0.05477162 0.18362403
-0.09376723 -0.05412772 0.19307408
-0.10015523 -0.05318985 0.20683920
-0.10428959 -0.05258267 0.21575230
-0.11219245 -0.05141602 0.23292822
-0.11782038 -0.05058018 0.24527541
-0.12149489 -0.05003608 0.25329962
-0.12712306 -0.04922117 0.26516515
-0.13079238 -0.04869110 0.27287298
-0.13608670 -0.04792194 0.28409398
-0.14117855 -0.04717959 0.29494596
-0.14611501 -0.04645988 0.30546689
-0.30468529 -0.04834567 0.00801641
-0.25018251 -0.05046491 0.02328235
-0.21933293 -0.05176453 0.02949578
-0.15637589 -0.05457214 0.03840792
-0.14427054 -0.05515423 0.03909701
-0.12702453 -0.05601161 0.03939736
-0.11341959 -0.05669988 0.03934574
-0.10398847 -0.05718333 0.03915632
-0.02635860 -0.06103442 0.04070854
-0.01593941 -0.06155044 0.04093760
-0.01216459 -0.06134268 0.05059290
-0.01826906 -0.06050389 0.06346846
-0.02430844 -0.05967965 0.07607061
-0.03065568 -0.05883969 0.08867741
-0.03682655 -0.05802306 0.10093409
-0.04210526 -0.05728642 0.11234236
-0.04348308 -0.05686689 0.12083119
-0.04564935 -0.05638974 0.12975311
-0.05082542 -0.05568174 0.14059222
-0.05587321 -0.05499129 0.15116262
-0.06079715 -0.05431776 0.16147399
-0.06560421 -0.05366037 0.17153722
-0.07014531 -0.05303028 0.18126351
-0.07458109 -0.05241482 0.19076398
-0.07891494 -0.05181348 0.20004642
-0.08315873 -0.05122517 0.20912331
-0.08739930 -0.05064313 0.21805167
-0.09318072 -0.04982446 0.23083454
-0.09692293 -0.04929390 0.23912403
-0.10222799 -0.04853081 0.25114158
-0.10548282 -0.04804911 0.25884244
-0.11005121 -0.04735837 0.27000618
-0.11380148 -0.04673694 0.28048980
-0.31860781 -0.04532184 0.00151342
-0.28585702 -0.04627859 0.01704091
-0.26577845 -0.04707444 0.02119499
-0.18630093 -0.05030906 0.03547472
-0.09524626 -0.05448784 0.03970838
-0.05596203 -0.05636926 0.03952163
-0.04559398 -0.05686958 0.03937560
-0.03497547 -0.05738398 0.03917497
-0.00338501 -0.05887192 0.03966552
0.00721639 -0.05936233 0.04005897
0.01268297 -0.05961828 0.04018343
0.01006311 -0.05908741 0.05058903
0.00412226 -0.05830931 0.06327075
-0.00166416 -0.05755145 0.07562286
-0.00730205 -0.05681304 0.08765793
-0.01301920 -0.05607668 0.09954333
-0.01854008 -0.05536290 0.11109018
-0.01883078 -0.05504464 0.11889380
-0.02004945 -0.05451601 0.13095552
-0.02462816 -0.05389264 0.14133677
-0.02891433 -0.05329713 0.15136167
-0.03310686 -0.05271462 0.16116756
-0.03663766 -0.05218585 0.17040515
-0.03987402 -0.05168366 0.17932153
-0.04251778 -0.05122889 0.18774691
0.23717314 -0.07062364 0.03260344
0.24558789 -0.07103738 0.03228825
0.08745485 -0.05972599 0.12887144
0.26511520 -0.07204796 0.03026307
0.27588373 -0.07261980 0.02877361
0.28970855 -0.07340223 0.02562278
0.31323916 -0.07485703 0.01710552
-0.31716073 -0.04255676 0.00804859
-0.24228740 -0.04524650 0.02648675
-0.22975528 -0.04572817 0.02871764
-0.21026242 -0.04648591 0.03195494
-0.20024282 -0.04687669 0.03358388
-0.13654637 -0.04950502 0.04002196
-0.08615553 -0.05176954 0.04007900
-0.07643110 -0.05220851 0.04003638
0.02500129 -0.05679021 0.03951448
0.03692424 -0.05733411 0.03930771
0.04297334 -0.05761011 0.03920156
0.04189599 -0.05706286 0.05276388
0.03761160 -0.05645091 0.06416309
0.03341788 -0.05585193 0.07532054
0.03021252 -0.05532848 0.08563310
0.02768332 -0.05485763 0.09534234
0.12723374 -0.06145379 0.03774446
0.13418418 -0.06177086 0.03762376
0.14829963 -0.06241474 0.03738040
0.16271025 -0.06307202 0.03713346
0.17743880 -0.06374405 0.03687411
0.18491995 -0.06408538 0.03674328
0.20012528 -0.06477910 0.03647739
0.20786840 -0.06513272 0.03633237
0.22362047 -0.06585232 0.03603184
0.30916220 -0.07013506 0.02420342
-0.31001890 -0.04138090 -0.02383572
-0.30595121 -0.04024774 0.01393819
-0.31402022 -0.03925096 0.03292108
-0.30540618 -0.03958195 0.03387594
-0.29631564 -0.03994693 0.03442973
-0.28675592 -0.04034423 0.03462207
-0.27656105 -0.04078681 0.03428066
-0.26587385 -0.04126138 0.03361529
-0.25438970 -0.04179211 0.03229910
-0.17616820 -0.04491882 0.03746587
-0.16491765 -0.04535654 0.03855622
-0.15729433 -0.04565314 0.03929478
-0.14540148 -0.04612556 0.04016632
-0.12391037 -0.04701717 0.04064363
-0.11482096 -0.04740250 0.04060710
-0.06704402 -0.04942792 0.04041529
-0.02577412 -0.05117762 0.04024583
-0.01499546 -0.05163461 0.04020119
-0.00402290 -0.05209981 0.04015595
0.05393428 -0.05455675 0.03992504
0.06619054 -0.05507638 0.03987437
0.07867855 -0.05560575 0.03982550
0.09141064 -0.05614550 0.03977448
0.09786552 -0.05641903 0.03975153
0.11117047 -0.05698756 0.03956825
0.23674643 -0.06236621 0.03747010
0.25403911 -0.06312514 0.03665286
0.27300757 -0.06398009 0.03510588
0.28487045 -0.06455115 0.03308588
0.29703611 -0.06513796 0.03097975
-0.31416833 -0.03893797 -0.03592837
-0.32358223 -0.03740709 -0.00007510
-0.32044986 -0.03725814 0.00836438
-0.29602823 -0.03792475 0.01760787
-0.31741768 -0.03605219 0.04938638
-0.30579361 -0.03647969 0.05037576
-0.29648885 -0.03683909 0.05063587
-0.28666121 -0.03723214 0.05049425
-0.27638367 -0.03765215 0.05006868
-0.26527381 -0.03812772 0.04894203
-0.25743842 -0.03847224 0.04786533
-0.24517506 -0.03901909 0.04594380
-0.23641664 -0.03942148 0.04420549
-0.18992972 -0.04155289 0.03511327
-0.10567898 -0.04470404 0.04065663
-0.09640354 -0.04506861 0.04072094
-0.05242467 -0.04680507 0.04078132
-0.04212344 -0.04721348 0.04074371
0.00655258 -0.04914345 0.04056197
0.04725057 -0.05075702 0.04041213
0.15817773 -0.05515498 0.04000443
0.17250121 -0.05572279 0.03995395
0.18712902 -0.05630280 0.03989852
0.19458693 -0.05659908 0.03985274
0.21000189 -0.05721649 0.03960270
0.30586821 -0.06129023 0.03080666
0.32164675 -0.06204120 0.02686858
-0.16111839 -0.04980347 -0.29907501
-0.31836659 -0.03646626 -0.04816347
-0.31223345 -0.03654842 -0.04339308
-0.30383676 -0.03667268 -0.03725284
-0.32337657 -0.03288194 0.06482601
-0.31496948 -0.03316344 0.06575310
-0.30576727 -0.03349763 0.06590193
-0.29644817 -0.03383349 0.06613815
-0.28638995 -0.03421582 0.06573385
-0.27563184 -0.03464042 0.06478065
-0.26420048 -0.03510417 0.06335020
-0.25615078 -0.03543834 0.06208986
-0.24709678 -0.03583819 0.05987549
-0.13621789 -0.04052541 0.03971571
-0.08649957 -0.04233531 0.04037577
0.01731217 -0.04613795 0.04096973
0.02306306 -0.04635015 0.04095143
0.03472507 -0.04678046 0.04091424
0.05263007 -0.04744113 0.04085696
0.12285239 -0.05003238 0.04062748
0.13645029 -0.05053411 0.04058444
0.14335471 -0.05078892 0.04056084
0.22427076 -0.05377693 0.04022497
0.24836677 -0.05467274 0.03992528
0.26658851 -0.05537869 0.03875071
0.27665263 -0.05578024 0.03771502
0.28816777 -0.05625757 0.03593552
0.33772224 -0.05847401 0.02288419
-0.16162592 -0.04661912 -0.31781322
-0.32261461 -0.03396523 -0.06054378
-0.31216043 -0.03410681 -0.05283922
-0.30136460 -0.03426851 -0.04543924
-0.31137165 -0.03230437 0.01281762
-0.28739145 -0.03294941 0.01899511
-0.32909751 -0.02983830 0.07964909
-0.32076696 -0.03009822 0.08050865
-0.31171352 -0.03040172 0.08068854
-0.30236173 -0.03071903 0.08073759
-0.28908789 -0.03118538 0.08023399
-0.28190503 -0.03144975 0.07953060
-0.27057379 -0.03187597 0.07809144
-0.25600106 -0.03250246 0.07342869
-0.21303922 -0.03515275 0.03085035
-0.20635146 -0.03535232 0.03186727
-0.18233740 -0.03606878 0.03552258
-0.17139781 -0.03640624 0.03679007
-0.16004157 -0.03676294 0.03787726
-0.15234435 -0.03700475 0.03861213
-0.07641810 -0.03955266 0.04002529
-0.06664771 -0.03988399 0.04008305
-0.03113127 -0.04108824 0.04029906
-0.02057910 -0.04144620 0.04035747
-0.00985408 -0.04180973 0.04042679
0.00106978 -0.04218021 0.04049033
0.06477892 -0.04434065 0.04086828
0.07706946 -0.04475742 0.04094160
0.08330041 -0.04496868 0.04097968
0.09594023 -0.04539724 0.04105723
0.10882348 -0.04583406 0.04113615
0.15657967 -0.04746474 0.04101664
0.23913723 -0.05028763 0.04067105
0.29848427 -0.05247075 0.03490001
0.32769459 -0.05364850 0.02835429
-0.32691330 -0.03143438 -0.07307166
-0.31635004 -0.03157077 -0.06547326
-0.30090195 -0.03179859 -0.05546731
-0.29193497 -0.03193291 -0.04974031
-0.30107754 -0.02996481 0.01585847
-0.33459437 -0.02691383 0.09389168
-0.32632813 -0.02715284 0.09467739
-0.31742871 -0.02742611 0.09490061
-0.30503026 -0.02781442 0.09491593
-0.29491538 -0.02814815 0.09426725
-0.28415516 -0.02851388 0.09315932
-0.27655143 -0.02877927 0.09210533
-0.12670916 -0.03483535 0.03910738
-0.11347240 -0.03524299 0.03939325
-0.10432297 -0.03552830 0.03945321
-0.09501505 -0.03581874 0.03950608
-0.05620509 -0.03702990 0.03972250
-0.04608917 -0.03734558 0.03977907
0.04739696 -0.04026287 0.04030675
0.16373891 -0.04389340 0.04096228
0.17797041 -0.04433745 0.04104477
0.19249284 -0.04479057 0.04112893
0.19987863 -0.04502122 0.04116398
0.21493018 -0.04549202 0.04120570
0.22258162 -0.04573145 0.04122275
0.25529867 -0.04677425 0.04055542
0.26445597 -0.04707655 0.03996164
0.27399999 -0.04739505 0.03920931
0.31080109 -0.04871221 0.03283274
-0.33126360 -0.02887316 -0.08574992
-0.31593180 -0.02907962 -0.07582015
-0.30705899 -0.02919976 -0.07010156
-0.29570305 -0.02936152 -0.06312424
-0.28630126 -0.02950626 -0.05781025
-0.32152057 -0.02721555 -0.00300789
-0.32062301 -0.02706926 0.00434059
-0.27740434 -0.02796586 0.01888955
-0.33988020 -0.02410167 0.10758740
-0.33167750 -0.02431963 0.10830647
-0.32002127 -0.02464360 0.10872012
-0.31057274 -0.02491998 0.10846692
-0.30050224 -0.02522496 0.10775244
-0.28979731 -0.02555837 0.10659921
-0.28067935 -0.02588379 0.10384619
-0.19426024 -0.03005258 0.03141719
-0.14213842 -0.03141196 0.03708112
0.00776410 -0.03564281 0.03964388
0.01901680 -0.03596367 0.03969663
0.03046220 -0.03628983 0.03975898
0.05398846 -0.03696027 0.03988630
0.06608498 -0.03730506 0.03994876
0.12342167 -0.03893915 0.04025292
0.13685954 -0.03932224 0.04031920
0.14367175 -0.03951635 0.04035699
0.23902136 -0.04223672 0.04073840
0.28624481 -0.04367571 0.03701013
0.32876104 -0.04510889 0.02777255
-0.33566636 -0.02628101 -0.09858119
-0.32701033 -0.02638184 -0.09275633
-0.31564951 -0.02653560 -0.08612293
-0.30638176 -0.02666479 -0.08088893
-0.29698652 -0.02679737 -0.07565922
-0.28728032 -0.02694362 -0.07069475
-0.27720395 -0.02710624 -0.06605071
-0.29104990 -0.02502426 0.01533765
-0.26736721 -0.02556052 0.01897764
-0.34243238 -0.02145236 0.12117970
-0.33099774 -0.02174169 0.12150109
-0.32201174 -0.02197414 0.12151343
-0.31249931 -0.02222809 0.12115496
-0.30231351 -0.02251010 0.12029469
-0.28723660 -0.02302430 0.11445087
-0.20352441 -0.02700469 0.02885830
-0.18633890 -0.02739548 0.03142172
-0.08287781 -0.02995147 0.03725165
-0.07329303 -0.03019724 0.03736764
-0.06354952 -0.03044708 0.03748548
-0.03332770 -0.03122201 0.03785169
-0.02290940 -0.03148915 0.03797829
-0.01231122 -0.03176089 0.03810698
-0.00152856 -0.03203737 0.03823805
0.07341111 -0.03395891 0.03914678
0.08574587 -0.03427519 0.03929615
0.09831268 -0.03459742 0.03944826
0.11111850 -0.03492579 0.03960300
0.15828395 -0.03614021 0.03993708
0.17241108 -0.03650453 0.04001015
0.17959470 -0.03668995 0.04003936
0.19416118 -0.03706565 0.04011220
0.20906860 -0.03745065 0.04016268
0.29926187 -0.03990704 0.03446895
0.31539351 -0.04041294 0.03030735
-0.34012270 -0.02365737 -0.11156833
-0.32645011 -0.02382805 -0.10385513
-0.31736237 -0.02393580 -0.09842765
-0.30540800 -0.02409717 -0.09232432
-0.29561427 -0.02423376 -0.08755511
-0.28533208 -0.02439121 -0.08329040
-0.27713346 -0.02453087 -0.08063453
-0.26571465 -0.02473658 -0.07752657
-0.31134921 -0.02212889 0.00429851
-0.30066085 -0.02224764 0.01110315
-0.25670344 -0.02312484 0.01856500
-0.34736609 -0.01883948 0.13386840
-0.33598945 -0.01909876 0.13409743
-0.32707733 -0.01930560 0.13407987
-0.31749260 -0.01953800 0.13353592
-0.30731466 -0.01979175 0.13259056
-0.17392898 -0.02480491 0.03112531
-0.16654485 -0.02495998 0.03197157
-0.15529627 -0.02519616 0.03326321
-0.13132828 -0.02571566 0.03515708
-0.11835212 -0.02600853 0.03556979
-0.10933453 -0.02621560 0.03566885
-0.10017216 -0.02642600 0.03576958
-0.05705351 -0.02741616 0.03624368
0.03965652 -0.02963688 0.03731155
0.11985576 -0.03147852 0.03819442
0.13308668 -0.03178234 0.03834051
0.14657539 -0.03209208 0.03848940
0.21828872 -0.03374023 0.03920621
0.24975985 -0.03447108 0.03912157
0.25881034 -0.03469170 0.03854549
0.26798981 -0.03491560 0.03795511
0.27856058 -0.03518545 0.03664029
0.29045087 -0.03549850 0.03465974
0.32297415 -0.03641356 0.02613854
-0.34463334 -0.02100168 -0.12471420
-0.33540702 -0.02110799 -0.11978906
-0.32596087 -0.02122152 -0.11502743
-0.31629148 -0.02134209 -0.11041373
-0.30644804 -0.02146704 -0.10584885
-0.29608297 -0.02161232 -0.10186225
-0.28495094 -0.02178821 -0.09876883
-0.27582294 -0.02195184 -0.09739345
-0.30605841 -0.01975521 -0.00297183
-0.28168064 -0.02000799 0.01172185
-0.24555516 -0.02064404 0.01785690
-0.35214451 -0.01632049 0.14612424
-0.34081340 -0.01654997 0.14625537
-0.33175895 -0.01673981 0.14597359
-0.32219386 -0.01694565 0.14535877
-0.19659060 -0.02151526 0.02562767
-0.14537996 -0.02245687 0.03193450
-0.04503608 -0.02446193 0.03471851
0.00752956 -0.02552262 0.03555924
0.01868373 -0.02574884 0.03566909
0.03003764 -0.02597911 0.03578079
0.05335361 -0.02645185 0.03601891
0.06533676 -0.02669486 0.03613830
0.07754385 -0.02694242 0.03625888
0.08997917 -0.02719461 0.03638190
0.10264963 -0.02745158 0.03650701
0.22865790 -0.03000909 0.03763348
0.31241173 -0.03189626 0.02717924
-0.34916851 -0.01831473 -0.13807887
-0.34203553 -0.01839321 -0.13477206
-0.33240026 -0.01850016 -0.13036948
-0.32248169 -0.01861560 -0.12620658
-0.31216371 -0.01874397 -0.12244725
-0.30119860 -0.01889482 -0.11944848
-0.29223353 -0.01903492 -0.11815405
-0.29683521 -0.01721615 0.00175321
-0.27002129 -0.01757646 0.00967902
-0.26140285 -0.01770005 0.01168931
-0.23664105 -0.01807881 0.01583147
-0.22707707 -0.01822515 0.01742768
-0.09070653 -0.02043676 0.03156531
-0.08129448 -0.02060150 0.03170580
-0.07172930 -0.02076893 0.03184855
-0.03699130 -0.02137696 0.03236711
-0.02668947 -0.02155728 0.03252083
-0.01621234 -0.02174067 0.03267717
-0.00555539 -0.02192720 0.03283614
0.15855664 -0.02479972 0.03528559
0.17244041 -0.02504273 0.03549284
0.17948484 -0.02516604 0.03559786
0.19380587 -0.02541690 0.03579777
0.20858485 -0.02567731 0.03589910
0.23919481 -0.02621774 0.03603512
0.25627869 -0.02653023 0.03536087
0.26543254 -0.02670121 0.03475535
0.27566296 -0.02689926 0.03359807
0.28855568 -0.02716521 0.03100997
0.30183607 -0.02743983 0.02829742
-0.35368437 -0.01559704 -0.15175551
-0.34627867 -0.01567360 -0.14894372
-0.33617222 -0.01578126 -0.14536506
-0.32568714 -0.01589913 -0.14215624
-0.31744677 -0.01599855 -0.14018744
-0.28678882 -0.01472342 0.00132316
-0.25112945 -0.01518028 0.00766969
-0.21461844 -0.01562544 0.01601160
-0.20476013 -0.01575199 0.01774639
-0.18455666 -0.01601132 0.02130192
-0.17406106 -0.01614813 0.02297860
-0.16682881 -0.01624433 0.02397662
-0.15581352 -0.01639091 0.02549219
-0.13646817 -0.01665553 0.02756756
-0.12440801 -0.01682240 0.02870530
-0.11556089 -0.01695317 0.02885878
-0.10653150 -0.01708713 0.02897519
0.04250515 -0.01929817 0.03089625
0.11609560 -0.02038992 0.03184497
0.12260574 -0.02048650 0.03192890
0.13581288 -0.02068243 0.03209913
0.14251167 -0.02078182 0.03218543
0.22086269 -0.02194554 0.03308588
0.22848010 -0.02205910 0.03313869
0.32160681 -0.02365020 0.01724905
-0.27447528 -0.01218524 0.00254506
-0.26492023 -0.01229473 0.00331527
-0.24149299 -0.01256890 0.00463271
-0.23091614 -0.01269531 0.00496662
-0.20680827 -0.01292469 0.01158267
-0.19737047 -0.01301681 0.01394087
-0.05981994 -0.01458416 0.02590972
-0.04994553 -0.01470358 0.02608019
-0.02453709 -0.01501088 0.02651876
-0.01407385 -0.01513743 0.02669930
-0.00343269 -0.01526612 0.02688295
0.00739086 -0.01539703 0.02706993
0.01287264 -0.01546332 0.02716446
0.02397901 -0.01559765 0.02735609
0.03527987 -0.01573433 0.02755123
0.05260766 -0.01594389 0.02785033
0.06441826 -0.01608674 0.02805412
0.07644236 -0.01623216 0.02826160
0.08253628 -0.01630586 0.02836686
0.09489167 -0.01645529 0.02858013
0.10747576 -0.01660749 0.02879721
0.15365118 -0.01716753 0.02943647
0.16748554 -0.01733574 0.02958649
0.17450476 -0.01742108 0.02966255
0.28192657 -0.01878249 0.02531499
0.29798323 -0.01902350 0.02092427
-0.21995556 -0.00997755 0.00511485
-0.20217705 -0.01016986 0.00220835
-0.18576372 -0.01026603 0.00995493
-0.17587960 -0.01034238 0.01225674
-0.16558200 -0.01042452 0.01432210
-0.15512788 -0.01050783 0.01642889
-0.14425427 -0.01059680 0.01832390
-0.13673967 -0.01065973 0.01944810
-0.12491077 -0.01076210 0.02079260
-0.11610436 -0.01084479 0.02096367
-0.10710770 -0.01092966 0.02108783
-0.09334546 -0.01105949 0.02127773
-0.08398759 -0.01114777 0.02140683
-0.07447910 -0.01123747 0.02153808
-0.03995889 -0.01156313 0.02201396
0.04698998 -0.01238339 0.02321309
0.18886399 -0.01372180 0.02516937
0.20331573 -0.01385822 0.02535701
0.21824175 -0.01400002 0.02543640
0.23347330 -0.01414470 0.02551919
0.24985427 -0.01430417 0.02511257
0.25970429 -0.01440672 0.02401489
0.26970774 -0.01451090 0.02289480
-0.31125167 -0.00653383 -0.00012755
-0.30090147 -0.00658737 0.00292367
-0.29235503 -0.00663761 0.00435948
-0.25510651 -0.00689350 0.00399524
-0.24496979 -0.00695966 0.00452024
-0.23449278 -0.00702902 0.00488681
-0.21197349 -0.00718409 0.00460052
-0.16860116 -0.00750326 0.00037014
-0.16043532 -0.00753427 0.00479156
-0.14538223 -0.00760249 0.01095921
-0.06702965 -0.00811386 0.01502013
-0.05730486 -0.00817918 0.01519191
-0.03229392 -0.00834717 0.01563358
-0.02199954 -0.00841632 0.01581544
-0.01153314 -0.00848662 0.01600027
-0.00089037 -0.00855811 0.01618820
0.00993317 -0.00863081 0.01637936
0.02094221 -0.00870475 0.01657385
0.03214145 -0.00877998 0.01677162
0.03781408 -0.00881808 0.01687175
0.04930812 -0.00889528 0.01707476
0.06100535 -0.00897385 0.01728135
0.07291090 -0.00905382 0.01749164
0.08503062 -0.00913522 0.01770568
0.09737021 -0.00921811 0.01792365
0.10362434 -0.00926012 0.01803410
0.11630529 -0.00934529 0.01825803
0.12273371 -0.00938847 0.01837152
0.13576978 -0.00947603 0.01860207
0.14905107 -0.00956524 0.01883715
0.16258478 -0.00965614 0.01907664
0.17637819 -0.00974878 0.01932073
0.26469558 -0.01036727 0.01634580
-0.32120627 -0.00390528 -0.00781035
-0.32382518 -0.00386756 0.00027055
-0.31992295 -0.00385891 0.00763023
-0.31133226 -0.00389101 0.00853515
-0.08407587 -0.00484912 -0.00008529
-0.07479852 -0.00488606 0.00021124
-0.06537867 -0.00492358 0.00051236
-0.05581313 -0.00496167 0.00081807
-0.04609835 -0.00500036 0.00112855
-0.03623104 -0.00503965 0.00144404
-0.02620733 -0.00507957 0.00176442
-0.01602352 -0.00512012 0.00208986
-0.00567567 -0.00516133 0.00242066
0.00483978 -0.00520321 0.00275689
0.01552743 -0.00524577 0.00309849
0.02639145 -0.00528903 0.00344563
0.03743607 -0.00533302 0.00379872
0.04302746 -0.00535528 0.00397748
0.05435175 -0.00540038 0.00433946
0.06586838 -0.00544624 0.00470746
0.07758206 -0.00549289 0.00508207
0.08949834 -0.00554034 0.00546288
0.10162228 -0.00558862 0.00585032
0.10776377 -0.00561308 0.00604671
0.12020963 -0.00566264 0.00644451
0.13287705 -0.00571309 0.00684947
0.14577234 -0.00576444 0.00726157
0.15890151 -0.00581673 0.00768131
0.17227095 -0.00586997 0.00810868
0.17904800 -0.00589696 0.00832528
0.19279051 -0.00595168 0.00876457
0.20715135 -0.00600967 0.00898355
0.21478462 -0.00604125 0.00887638
0.23029435 -0.00610540 0.00865835
0.23816377 -0.00613793 0.00855350
0.25311798 -0.00621369 0.00418127
-0.34449595 -0.00126116 0.00013942
-0.33571365 -0.00126833 0.00445217
-0.29866445 -0.00130966 0.01267725
-0.29249936 -0.00131768 0.01301950
-0.27981639 -0.00133437 0.01356059
-0.26993373 -0.00134759 0.01378024
-0.25971550 -0.00136146 0.01383710
-0.24904615 -0.00137625 0.01361149
-0.24165440 -0.00138669 0.01328349
-0.22608209 -0.00140924 0.01210237
-0.20052928 -0.00144761 0.00892043
-0.19013029 -0.00146490 0.00612742
-0.35980850 0.00124337 -0.00262064
-0.35784125 0.00123975 0.00303411
-0.21691406 0.00141920 0.01437211
-0.34684783 0.00374774 0.00794345
-0.32575160 0.00382200 0.01153594
-0.31578732 0.00385245 0.01461488
-0.18952674 0.00437093 0.01396012
-0.23160130 0.00697344 0.01839721
-0.36674809 0.00862053 -0.00047380
-0.35539252 0.00866348 0.00790942
-0.33728346 0.00881222 0.01099187
-0.30498898 0.00907466 0.01684856
-0.29596990 0.00915538 0.01753205
-0.28670788 0.00923913 0.01812452
-0.27718413 0.00932618 0.01861483
-0.26736367 0.00941708 0.01897329
-0.25724423 0.00951177 0.01921236
-0.24679852 0.00961064 0.01931471
-0.22102636 0.00985926 0.01896620
-0.20928651 0.00997488 0.01850277
-0.20114046 0.01005646 0.01800948
-0.23265845 0.01252713 0.01960283
-0.18903542 0.01308194 0.01764190
-0.34697303 0.01373762 0.00812924
-0.32624078 0.01399830 0.01222223
-0.31642956 0.01410533 0.01549125
-0.35724604 0.01614038 0.00212002
-0.26381585 0.01755408 0.01881319
-0.25707251 0.01767076 0.01900679
-0.24668735 0.01785221 0.01918429
-0.22485667 0.01824037 0.01909262
-0.21723360 0.01837806 0.01891291
-0.20543134 0.01859352 0.01847583
-0.34558293 0.01886796 0.00176269
-0.33678037 0.01897708 0.00600153
-0.30641675 0.01945481 0.01456040
-0.29457977 0.01967736 0.01572454
-0.28540152 0.01985271 0.01646078
-0.27596757 0.02003496 0.01709712
-0.23416555 0.02367372 0.01715928
-0.19534636 0.02459578 0.01596886
-0.18604398 0.02483955 0.01447993
-0.36118209 0.02354295 -0.00048143
-0.32480854 0.02443941 0.00166941
-0.31689802 0.02451689 0.00768512
-0.31591767 0.02725755 0.00204974
-0.30526042 0.02750442 0.00453538
-0.29725152 0.02768588 0.00657743
-0.28615209 0.02794659 0.00901312
-0.27702123 0.02818426 0.01002514
-0.26434541 0.02852229 0.01108533
-0.25445634 0.02879145 0.01167935
-0.24417657 0.02907712 0.01204592
-0.22606593 0.02959463 0.01208389
-0.21456093 0.02993192 0.01174337
-0.20659852 0.03016901 0.01135147
-0.35032755 0.02882118 0.00023896
-0.34199309 0.02906953 0.00074345
-0.23645377 0.03221307 0.00718600
-0.19658589 0.03352908 0.00460553
-0.31287602 0.03255115 0.00211996
-0.36118144 0.03345581 -0.00048250
-0.33036596 0.03454487 0.00101382
-0.24725837 0.03754354 0.00300407
-0.30566180 0.03808729 0.00079697
-0.29664031 0.03842142 0.00149268
-0.28735977 0.03876958 0.00207067
-0.27456039 0.03925668 0.00265342
-0.26460773 0.03964131 0.00292546
-0.25432891 0.04004375 0.00304502
-0.32032967 0.04272387 -0.00037044
-0.27118492 0.04754017 0.00264305
-0.26103312 0.04802020 0.00275278
-0.24954838 0.04861702 0.00149846
-0.31177619 0.04829395 0.00059825
-0.29982096 0.04886096 0.00146937
-0.29054672 0.04930782 0.00197548
-0.28099218 0.04977424 0.00235015
-0.32345366 0.05290144 -0.00025803
-0.28415725 0.05766870 0.00217271
-0.27431694 0.05823727 0.00234336
-0.26386029 0.05886694 0.00199300
-0.31491160 0.05854106 0.00064796
-0.30598962 0.05905840 0.00124431
-0.29680708 0.05959800 0.00171560
-0.32936621 0.06283806 -0.00042826
-0.29678977 0.06754693 0.00169241
-0.28724736 0.06819714 0.00192356
-0.27736869 0.06888147 0.00196570
-0.32091483 0.06852600 0.00045615
-0.31208178 0.06913075 0.00102103
-0.33243269 0.07285179 -0.00031334
-0.30294374 0.07766714 0.00139558
-0.29667845 0.07816125 0.00154370
-0.28701144 0.07893401 0.00161463
-0.32103646 0.07884774 0.00062805
-0.33823574 0.08257466 -0.00048143
-0.32977989 0.08327675 0.00016850
-0.30902535 0.08766454 0.00110519
-0.29964724 0.08851127 0.00123554
-0.28947982 0.08948957 0.00056893
-0.32109094 0.08917741 0.00070500
-0.33843398 0.09269420 -0.00018936
-0.32988212 0.09350403 0.00031590
-0.31502315 0.09754402 0.00080347
-0.30572185 0.09848858 0.00087887
-0.34137160 0.10252712 -0.00017828
-0.32989731 0.10374738 0.00033778
-0.31790036 0.10764939 0.00052077
-0.31167957 0.10835837 0.00046444
-0.34982759 0.10915194 -0.00051826
-0.34142858 0.11263796 -0.00009382
-0.32980204 0.11401921 0.00020039
-0.32066014 0.11772595 0.00009638
